ply
format ascii 1.0
element vertex 349
property float x
property float y
property float z
property uchar blue
property uchar green
property uchar red
end_header
-0.182119 -1.228224 1.156357 8 7 8
0.237398 -0.829259 0.150178 26 24 24
-1.173545 -0.046499 0.179840 32 32 32
0.038866 0.168189 0.662762 35 33 33
2.817395 1.887509 5.777506 50 52 54
-0.542042 -0.720460 0.168241 33 30 30
-0.705057 0.026376 0.909047 48 45 43
-20.660208 -7.657196 -51.272797 29 50 105
-1.474717 -0.187370 1.447119 17 15 15
0.942452 0.098191 2.840910 22 19 20
-0.558969 -0.685757 0.077334 13 12 12
-0.082058 -0.075742 0.121956 26 26 26
332.734894 110.554375 823.762451 51 52 53
0.435392 -0.828675 0.434713 47 43 43
-1.489286 -0.198195 1.512594 14 12 12
-1.050632 -0.437309 0.848289 18 16 16
0.100232 -0.828660 -0.070186 13 12 13
4.757154 0.287052 9.462300 24 23 23
2.224426 1.035200 4.097255 55 55 55
27.386135 7.437770 65.975800 17 16 16
-0.575211 -0.656787 0.012045 10 9 9
31.887987 9.211605 76.201675 30 30 30
0.094601 -0.828413 -0.078376 13 12 12
5.711381 0.361997 11.760455 25 24 25
0.450291 -0.826716 0.448986 24 23 22
-0.783524 -0.116738 0.875244 23 19 19
-0.019031 0.980677 1.743638 10 10 11
-1.447633 -0.095776 1.171328 58 57 57
0.035365 -0.420806 0.118356 75 74 74
0.374971 -0.828617 0.349858 20 18 18
13.801773 3.934863 32.867794 27 23 22
-0.189858 -1.195537 1.096976 11 11 11
0.048459 0.289413 0.841325 34 33 32
47.456173 14.139427 115.877388 38 39 39
14.426936 3.159711 33.867592 12 12 13
-1.355727 -0.056105 0.784010 57 56 57
-1.509545 -0.110259 1.410025 30 29 29
0.381381 2.980317 5.147610 9 9 10
-1.491145 -0.193972 1.518071 24 22 22
-23.346506 -9.473391 -59.664528 13 12 12
-0.757732 -0.010448 1.078216 43 39 40
0.485991 3.867858 6.599631 36 38 39
2.456827 1.257261 5.337923 43 42 42
0.819509 0.190776 2.047647 40 39 39
16.404825 3.784842 38.807377 28 29 30
-1.137427 -0.021758 0.013867 14 14 15
-33.738358 -13.201964 -85.201988 55 55 57
-239.810577 -82.065346 -581.767944 19 18 18
2.367955 1.250765 4.476387 9 8 9
3.657381 -0.070990 7.521831 36 34 34
88.640434 28.302229 215.719742 28 27 27
0.360381 -0.858631 0.350037 13 13 13
-1.156371 -0.038149 0.116504 8 6 6
-30.130032 -11.826015 -76.327454 53 54 54
-0.213814 -1.161339 1.018443 42 42 44
-1.450197 -0.162476 1.326572 33 31 31
0.565818 -0.826021 0.621914 37 35 35
0.043650 0.268053 0.805631 17 15 14
-0.761897 -0.033024 0.995794 89 86 87
-1.440707 -0.149649 1.261760 21 19 18
-0.015560 0.106227 0.482086 21 31 57
-37.346058 -14.043769 -92.240517 24 24 24
-1.368185 -0.059188 0.827016 35 34 34
-1.526022 -0.182655 1.618340 60 58 59
-0.706535 -0.593593 0.578023 23 23 23
-0.541619 -0.738261 0.248133 15 12 13
-0.299340 -1.034323 0.752185 6 5 6
-1.387499 -0.088531 0.951167 33 30 30
31.386169 9.085056 73.981880 15 13 13
0.202665 -0.832935 0.095583 25 24 23
-35.869682 -13.646674 -90.574677 44 46 46
-0.564666 -0.676972 0.058835 9 7 7
-0.638155 -0.676347 0.703875 40 40 41
0.492938 -0.827632 0.514598 19 17 16
-0.568934 -0.668920 0.039908 11 9 10
0.083712 -0.830164 -0.093301 20 19 20
-0.905028 -0.203117 1.215010 33 46 89
2.191986 1.096069 4.285411 52 51 51
-0.717602 0.044038 1.056788 79 76 76
0.102772 -0.080175 1.379090 92 87 86
-0.562565 -0.678450 0.062312 10 9 10
-24.821405 -10.003585 -62.517719 11 22 57
-1.486265 -0.197329 1.501934 16 14 14
8.287079 1.214767 18.118034 10 8 8
-73.597984 -26.092405 -180.122223 19 19 18
-1.458392 -0.114848 1.256016 24 22 21
2.316466 1.262995 4.449175 23 21 22
0.158024 0.352858 1.092884 35 33 33
-58.094437 -20.809109 -143.051559 16 34 81
2.000438 0.385174 3.341154 7 7 10
0.504709 -0.826856 0.533339 18 15 15
-0.778253 -0.062798 0.989116 89 88 88
-0.069607 -0.029018 0.208193 12 9 8
-0.788524 -0.069391 0.957924 87 85 89
-42.180546 -15.015440 -105.181007 57 54 54
14.696280 3.598868 35.160061 24 23 23
34.306469 10.296441 82.016304 26 24 23
-0.029075 0.078898 0.451023 11 15 34
-241.934509 -82.813034 -585.021484 12 11 11
38.312973 11.617750 91.398140 18 14 14
-3.923763 -1.825942 -8.678147 34 30 31
0.094273 -0.829403 -0.077980 25 24 25
2.351703 1.241537 4.557068 12 10 11
-23.507877 -9.513792 -59.782444 48 49 56
-1.046085 -0.438146 0.835804 18 15 16
-1.477522 -0.190054 1.448029 15 12 14
-0.294862 -1.042917 0.768631 8 7 8
2.376820 1.264731 4.838254 47 47 47
2.398655 1.321272 5.014671 20 18 18
-0.127146 -0.184655 -0.072242 18 28 61
-0.204212 -1.175281 1.054924 40 41 42
-0.554437 -0.696584 0.120211 14 13 13
-16.106091 -6.888698 -40.852543 49 49 50
0.818784 0.189657 2.073375 23 19 21
0.041645 -0.413772 0.150924 23 38 87
0.181998 2.159486 3.717586 35 37 38
-9.392967 -3.641666 -21.801964 67 62 62
-1.451943 -0.169001 1.337418 54 53 52
12.301455 2.501544 28.419790 36 35 35
-1.161047 -0.037848 0.120227 23 24 24
81.515289 25.667690 199.592682 15 15 15
0.038865 0.266912 0.790852 19 16 16
0.416096 -0.830759 0.405668 17 15 15
9.667878 1.678613 21.392395 27 27 27
-0.737873 0.002814 1.008584 67 64 63
-1.525292 -0.169466 1.589580 60 59 59
-1.376674 -0.087317 0.923634 30 27 26
-13.861578 -5.953470 -35.292351 82 81 86
0.220743 -0.823453 0.103627 50 53 55
0.085729 -0.828211 -0.090411 27 26 28
4.919367 0.401205 10.653468 37 33 31
-1.518782 -0.216960 1.653806 35 33 33
-18.130886 -7.343346 -45.981422 54 53 53
2.916327 1.527707 7.349793 23 22 21
-0.428367 -0.299712 0.619716 33 29 28
137.069427 44.568005 334.693939 16 16 16
-134.791550 -47.280170 -334.887817 19 18 18
37.060848 10.974046 87.432892 18 17 18
-0.577725 -0.650641 0.000337 27 26 26
3.427644 0.490685 7.781313 59 56 54
-0.557852 -0.689088 0.085495 13 11 11
-0.033875 0.071105 0.405401 23 20 20
3.121620 1.518746 8.957582 57 57 57
0.243203 -0.830712 0.157369 48 47 47
-1.435479 -0.143207 1.233582 14 12 10
-0.018766 -0.335753 -0.170106 10 9 10
-0.147049 0.016999 1.407521 24 26 27
-1.483227 -0.183978 1.470361 58 56 56
2.547817 0.857663 5.864989 16 14 14
-0.143532 -0.377958 -0.376271 56 54 55
2.182302 -0.585058 3.647201 10 10 10
-0.482549 -0.358690 0.569220 41 37 38
33.925419 9.891585 79.692589 32 31 31
-53.501827 -19.526062 -131.319946 16 15 15
-11.845828 -5.368876 -30.464037 19 18 20
0.855892 0.260900 2.135043 41 39 40
18.606743 4.127334 45.066193 50 50 51
2.427054 1.353873 4.857854 20 19 20
-0.040096 0.010230 0.328594 39 37 37
-1.519508 -0.217115 1.657515 18 16 16
-0.806292 -0.097397 1.012893 20 17 18
-1.470029 -0.187777 1.418892 18 16 16
-0.076174 -1.377787 1.481472 18 17 18
0.408539 3.104753 5.341859 10 10 11
-0.753173 -0.076142 0.852853 54 51 52
0.738539 -0.844644 0.889397 24 23 22
-0.541672 -0.724953 0.180544 45 43 43
0.090951 -0.374102 0.282626 52 50 50
-1.174824 -0.047821 0.189389 14 14 14
-1.527111 -0.184404 1.642595 54 54 59
6.220596 0.527087 13.144974 47 46 47
-1.569543 -0.179033 1.782075 49 47 47
8.150193 1.151332 17.749348 42 41 42
0.024434 1.049588 1.864389 40 43 43
29.905195 8.746150 70.634155 39 39 39
-1.470927 -0.185216 1.430559 51 50 50
0.280022 -0.859564 0.229919 66 68 70
0.072230 0.094713 1.976682 22 19 20
-0.079786 -0.083405 0.111173 28 27 27
-10.613765 -4.782504 -27.221430 83 83 86
3.392003 -0.163323 6.906460 55 55 55
-1.047392 -0.413808 0.812140 27 42 90
0.095447 -0.828040 -0.076523 40 39 40
5.186948 0.519492 11.303288 40 39 38
33.988953 9.809357 82.004105 15 13 14
0.224427 2.161976 3.743705 8 7 8
0.279351 -0.859748 0.228733 66 68 70
2.665495 1.040714 6.338151 18 27 55
-0.678479 -0.622624 0.621705 32 32 33
0.264971 -0.875413 0.231759 36 35 35
26.508377 7.278498 63.698406 15 14 15
-1.407497 -0.131022 1.107084 31 29 28
50.844719 16.271681 122.031921 41 36 35
3.912185 -0.156280 7.305251 4 5 5
-16.176245 -6.916803 -41.058403 15 14 15
0.374877 -0.828094 0.339371 20 17 17
0.358382 -0.828984 0.315429 36 34 33
-0.519223 0.885051 1.620268 54 58 60
-20.001459 -8.216593 -51.273121 44 46 46
-0.066703 -0.022105 0.220869 17 15 15
0.526607 -0.827583 0.566723 28 26 25
-27.268988 -10.773012 -69.493324 28 28 28
0.262764 -0.830226 0.187178 16 14 14
0.044136 0.282146 0.829941 27 25 24
0.242505 -0.830821 0.149911 15 14 14
2.605788 0.868661 6.174891 30 29 29
-0.768962 -0.033661 1.048718 29 26 27
6.182069 0.492504 13.012550 23 22 22
-0.583981 -0.646370 0.029324 46 47 60
-0.513526 -0.382930 0.580120 62 60 62
-1.173121 -0.046746 0.180586 24 24 24
0.849675 -0.829764 1.035471 4 4 4
13.447243 3.802872 32.103073 84 80 78
-10.909258 -4.172090 -25.552504 100 96 95
-0.656233 -0.636127 0.639924 52 54 55
-39.381073 -14.985214 -99.048386 51 52 52
-0.588312 -0.660304 0.097634 12 10 11
-782.821716 -264.174225 -1892.588623 25 23 23
-1.549417 -0.173247 1.690373 28 24 26
0.275401 -0.831448 0.199184 49 49 48
256.259949 84.962952 632.656738 30 31 32
-7.121700 -17.287365 -34.545418 55 54 54
4.277526 0.019694 8.221118 38 41 44
-4.538848 -2.714914 -12.393599 21 38 87
0.345672 -0.790151 0.265230 19 18 18
-103.054024 -36.219906 -251.465240 16 14 13
-0.560159 -0.686833 0.099815 14 12 12
3.558912 1.789007 10.027803 26 24 23
-10.948112 -5.270143 -29.136816 57 57 59
2.264013 1.148778 4.305193 25 22 23
24.150932 6.946813 57.340534 15 13 13
0.031344 0.237425 0.745364 47 44 43
-0.531194 0.739475 1.446052 24 24 25
27.722416 7.490909 67.081184 23 21 22
0.172800 2.654679 4.465540 10 10 11
-6.468111 -2.721610 -15.056536 51 46 48
0.597825 -0.822952 0.669070 31 30 30
-0.181932 -1.230742 1.167102 16 16 16
0.403062 -0.824344 0.381719 41 41 40
0.844536 0.218729 2.054620 20 17 18
-0.588957 -0.646649 0.059432 15 12 13
6.229487 0.519941 13.084311 18 17 17
-12.321817 -5.374630 -31.420443 19 34 86
-23.981020 -9.726150 -61.225227 45 46 46
3.266083 -0.194177 6.580796 23 21 22
-0.573858 -0.654223 0.007039 34 32 33
0.367677 -0.873022 0.370104 48 49 50
-1.479429 -0.187838 1.468846 22 20 19
-0.078312 -0.070950 0.128172 33 31 31
-1.034878 -0.437895 0.804855 48 46 45
40.029804 12.279405 97.178665 60 58 59
-2.600445 -3.032699 8.467024 46 51 67
-0.073231 -0.015287 0.237162 37 35 35
3.758989 -0.019011 7.790537 20 17 16
-0.556365 -0.690226 0.088851 24 23 23
-0.111882 -0.135927 0.031329 60 58 59
-19.259296 -7.927907 -48.527863 53 53 55
0.784354 -0.831692 0.947071 37 38 38
0.142934 -0.832874 0.009893 23 21 22
0.205079 -0.830242 0.088449 14 13 13
-1.485861 -0.184501 1.487416 33 32 32
-0.560842 -0.683005 0.072341 10 8 9
-0.081454 -0.078088 0.115039 30 28 28
-18.329771 -7.653009 -46.262611 32 31 32
17.251991 4.190102 40.684181 32 32 32
-0.081246 -0.076126 0.111921 23 22 22
-10.920664 -4.902050 -28.071136 37 36 36
36.890362 10.922372 87.180023 27 27 27
-1.407134 -0.122283 1.096456 59 57 57
-0.568121 -0.667699 0.046583 14 12 12
6.396336 0.534697 13.497739 22 21 22
19.753038 5.483934 46.676353 54 51 51
4.929839 0.084055 10.004063 12 11 10
-0.066212 -0.040877 0.188701 23 23 23
-88.718475 -31.414455 -215.662689 12 12 11
-0.558133 -0.692124 0.082213 38 36 36
42.369328 12.569899 103.138161 51 52 53
813.454590 270.593597 2013.985840 24 24 25
-1.163070 -0.041465 0.145752 39 40 41
0.093599 -0.827550 -0.081640 34 35 36
-1.371129 -0.062959 0.848746 40 39 38
-16.623541 -6.787785 -42.318974 24 21 22
-8.867515 -4.153072 -22.561640 24 21 21
-1.423441 -0.131689 1.165934 24 21 20
-0.737677 -0.028218 0.888965 27 23 22
-0.027460 0.978138 1.709468 41 43 43
-1.447787 -0.165671 1.311590 17 14 13
0.050606 -0.834942 -0.130428 59 58 59
-4.859806 -2.177792 -11.056423 147 144 146
-0.557498 -0.689811 0.086845 16 14 14
6.378006 0.512759 13.620023 30 29 29
-23.069586 -9.383735 -58.995594 16 16 16
0.415420 -0.829580 0.403385 16 14 14
-0.545952 -0.712821 0.141345 15 14 14
0.431515 3.367482 5.791040 10 11 11
-37.404873 -14.166082 -92.382927 40 41 42
-21.675232 -8.874565 -55.409309 30 31 32
0.192219 2.105266 3.662128 15 17 18
-1.581818 -0.207138 1.848697 60 59 59
-32.080269 -12.337852 -80.202011 86 85 86
11.533369 3.409137 28.630297 74 69 68
9.385677 1.930011 21.368214 41 38 38
-0.578552 -0.660118 0.061359 20 27 51
1.015930 0.186255 3.097734 42 52 84
0.318771 -0.375485 0.519520 24 22 22
288.623108 95.503258 697.287720 14 14 14
74.216362 23.257729 182.688431 16 14 15
-43.591026 -15.821150 -108.975174 26 26 26
-7.030038 -2.852475 -16.077778 39 34 33
-0.032827 0.077844 0.419742 12 9 8
3.372191 -0.350112 6.011597 13 14 14
2.311522 1.260914 4.481707 44 42 43
-5.379921 -2.571592 -13.626378 22 19 20
95.506073 30.550751 232.403473 22 20 21
-1.396948 -0.123711 1.077327 53 51 50
-8.159574 -3.228343 -18.799173 94 90 89
0.385155 -0.872353 0.399855 53 55 56
-1.463616 -0.179580 1.395720 17 15 15
-86.314636 -30.578899 -211.012344 10 9 9
-0.547099 -0.712381 0.150331 14 13 13
-1.524804 -0.135488 1.528753 41 40 39
-1.461697 -0.165649 1.361570 40 39 37
5.543975 0.236822 11.532541 54 54 55
3.248434 -0.202085 6.552672 44 42 42
0.190135 -0.832934 0.078358 36 36 35
-0.555748 -0.670736 0.033845 57 56 56
-8.369111 -3.999068 -21.407944 42 41 42
5.637620 0.583688 12.598314 43 43 43
2.965497 1.482852 7.874447 16 14 14
0.268163 -0.858848 0.210920 44 46 48
27.977604 7.936192 65.948845 54 54 55
-0.515226 -0.626745 -0.119600 21 18 19
-283.475647 -97.053970 -703.800354 23 22 22
-0.478373 1.097329 1.965365 54 57 59
-1.018751 -0.402699 0.714592 85 84 83
0.370247 -0.857517 0.366072 23 22 24
19.686195 4.947811 46.427189 24 24 24
0.182980 -0.833454 0.061207 57 56 57
70.335159 21.917103 172.775879 43 45 45
2.429929 1.190252 5.115205 57 57 57
-0.477415 -0.417721 0.455662 81 77 79
2.357117 1.253471 4.855730 13 12 12
5.723021 0.355671 11.930819 15 14 14
-19.818359 -8.177251 -50.038383 53 54 56
2.131316 0.419567 3.633532 9 9 11
0.189634 -0.833434 0.077574 53 53 53
-151.735657 -52.558594 -369.060181 11 10 10
1.289853 -0.818098 1.667415 51 50 50
-1.462132 -0.177072 1.373554 41 40 39
