ply
format ascii 1.0
element vertex 349
property float x
property float y
property float z
property uchar blue
property uchar green
property uchar red
end_header
20.172590 2.469039 -2.291988 8 7 8
109.893532 -108.375404 -239.390625 26 24 24
19.572952 3.918889 -0.492586 32 32 32
-4807649.000000 23258304.000000 -68521616.000000 35 33 33
-58.885830 237.594254 280.066711 50 52 54
22.785389 -26.585251 -49.016182 33 30 30
2977700864.000000 3118574848.000000 -2689000448.000000 48 45 43
-271117.187500 1098281.375000 -3197222.000000 29 50 105
15.891137 44.247292 26.901634 17 15 15
24.598890 -7.497757 -28.286369 22 19 20
25.059345 -31.764870 -53.314453 13 12 12
188243904.000000 388710528.000000 -283086368.000000 26 26 26
22.255867 -3.278871 -24.243631 51 52 53
110.116737 -108.730682 -237.932449 47 43 43
15.537585 43.314823 27.025528 14 12 12
29.669981 -18.099821 -39.323124 18 16 16
109.067818 -109.874542 -237.793991 13 12 13
125.980515 -106.674728 -237.551712 24 23 23
13.122583 -12.865204 -35.195400 55 55 55
22.260056 -3.244756 -24.345190 17 16 16
26.052568 -33.195728 -54.172218 10 9 9
109.182793 -108.039978 -244.558975 30 30 30
109.083260 -109.866096 -237.870529 13 12 12
134.061386 -102.186272 -233.904327 25 24 25
110.167397 -108.754601 -237.966385 24 23 22
-53770136.000000 -107951560.000000 79929848.000000 23 19 19
45094248448.000000 41597001728.000000 -39227432960.000000 10 10 11
21.176233 -0.568231 -1.762436 58 57 57
-16068565.000000 -37152220.000000 26690638.000000 75 74 74
110.063614 -108.396484 -238.929031 20 18 18
-35723408.000000 196711504.000000 -572370176.000000 27 23 22
20.352388 2.369158 -2.019638 11 11 11
364077514752.000000 201667526656.000000 -329842163712.000000 34 33 32
37478.667969 -14363.544922 29011.539062 38 39 39
109.595596 -107.637245 -243.779282 12 12 13
20.240829 0.602359 -2.841519 57 56 57
26.809063 -16.891018 -40.643116 30 29 29
2534138445824.000000 1971580698624.000000 -2764720308224.000000 9 9 10
16.140600 44.978783 27.181990 24 22 22
108.370583 -108.352890 -245.419601 13 12 12
-99122.578125 519579.531250 -1630221.500000 43 39 40
2847498567680.000000 2270858313728.000000 -3153594155008.000000 36 38 39
25.636951 -6.712606 0.071261 43 42 42
26.794655 -30.739653 -50.893654 40 39 39
22.263090 -3.223261 -24.418980 28 29 30
13.657676 86.251579 75.550873 14 14 15
108.388924 -108.472435 -245.629196 55 55 57
108.647812 -108.610657 -245.825134 19 18 18
24.857077 1.580716 0.058394 9 8 9
115.872681 -110.510086 -239.045425 36 34 34
131344.171875 -50567.789062 102047.609375 28 27 27
108.482361 -108.904320 -235.647263 13 13 13
18.679459 3.720001 -0.664405 8 6 6
108.504837 -108.268326 -245.188965 53 54 54
23.182285 -6.167562 -20.912001 42 42 44
16.946697 47.344185 28.196054 33 31 31
110.306580 -108.582275 -238.017929 37 35 35
75947032576.000000 21468907520.000000 -90546921472.000000 17 15 14
-414011.312500 1836421.625000 -5391999.000000 89 86 87
25.463570 -19.688513 -42.677761 21 19 18
-10353146.000000 45890796.000000 -133137944.000000 21 31 57
108.290794 -108.817970 -246.418900 24 24 24
20.178917 0.807452 -2.706536 35 34 34
17.784540 50.507942 31.564011 60 58 59
21.067419 3.643160 -2.141809 23 23 23
26.328907 -15.562307 -40.660732 15 12 13
20.607244 2.565016 -2.235341 6 5 6
28.561033 -15.015387 -39.243675 33 30 30
133.138092 -102.778130 -234.774216 15 13 13
109.748940 -108.490417 -239.293030 25 24 23
108.617302 -108.183296 -245.017868 44 46 46
25.442026 -32.297802 -53.637535 9 7 7
20.851559 3.043085 -3.454259 40 40 41
110.205254 -108.689140 -237.928818 19 17 16
25.900917 -32.975128 -53.998936 11 9 10
108.961678 -109.840919 -237.944244 20 19 20
728.417664 -812.658264 256.056305 33 46 89
13.456182 -12.659292 -35.053520 52 51 51
-6709637.000000 31174762.000000 -91576728.000000 79 76 76
-2103472.750000 -4998183.000000 3648254.000000 92 87 86
25.266924 -32.054352 -53.497169 10 9 10
108.242523 -108.592728 -245.858398 11 22 57
15.537039 43.311279 27.010912 16 14 14
133.170975 -102.401222 -233.908478 10 8 8
108.510757 -108.710327 -246.129318 19 19 18
20.656950 0.958199 0.327954 24 22 21
26.133036 -6.439999 0.063403 23 21 22
63716408.000000 91583656.000000 -300474464.000000 35 33 33
114.922348 -112.345642 -240.480392 16 34 81
-67.504509 231.086945 285.149170 7 7 10
110.233238 -108.631058 -238.040222 18 15 15
-216947.265625 983321.687500 -2890943.000000 89 88 88
-210062560.000000 -431920512.000000 315102496.000000 12 9 8
-274052.250000 1232281.625000 -3616541.500000 87 85 89
-491719.156250 2008572.625000 -5854601.500000 57 54 54
22.232357 -3.370647 -23.947382 24 23 23
22.208872 -3.515433 -23.277723 26 24 23
-8252468.500000 36094680.000000 -105059584.000000 11 15 34
108.620872 -108.664757 -245.947281 12 11 11
22.215263 -3.525347 -23.250669 18 14 14
-3193002.000000 -1039357.562500 395327.156250 34 30 31
109.033615 -109.836517 -237.872955 25 24 25
13.598426 -12.604321 -35.086548 12 10 11
108.307480 -108.461380 -245.636230 48 49 56
29.839586 -18.159904 -39.279491 18 15 16
25.131771 -20.305717 -42.825466 15 12 14
20.605232 2.551520 -2.214130 8 7 8
13.568772 -12.511907 -34.846199 47 47 47
25.789804 -6.574224 0.068810 20 18 18
267757.468750 -641675.187500 -1068127.875000 18 28 61
20.363522 2.403523 -2.074107 40 41 42
22.979038 -27.381109 -49.874454 14 13 13
107.695305 -109.161919 -247.389313 49 49 50
26.680401 -30.584482 -50.902889 23 19 21
1453636.375000 3272574.250000 -2371492.000000 23 38 87
298791108608.000000 67981705216.000000 -44600225792.000000 35 37 38
3142910.000000 8025652.000000 -5779782.000000 67 62 62
16.407051 45.669762 27.115686 54 53 52
148.601517 -90.125671 -236.536270 36 35 35
20.529875 2.806307 -0.825118 23 24 24
134829.218750 -51963.609375 105100.820312 15 15 15
260654841856.000000 143060647936.000000 -234060005376.000000 19 16 16
110.050980 -108.699036 -238.064423 17 15 15
133.417038 -102.319267 -233.972794 27 27 27
-1856165.375000 8012463.500000 -23525528.000000 67 64 63
17.995211 49.915836 30.716843 60 59 59
26.773943 -17.997849 -41.515991 30 27 26
114.679504 -112.845322 -240.970688 82 81 86
109.320473 -110.167564 -236.214722 50 53 55
109.060760 -109.883934 -237.911026 27 26 28
115.778992 -111.258881 -239.425293 37 33 31
15.543768 43.416126 27.382767 35 33 33
114.219490 -111.952454 -240.893982 54 53 53
25.113234 -6.915413 0.082621 23 22 21
16707874.000000 36887860.000000 -27010986.000000 33 29 28
313762.406250 -120884.460938 244144.468750 16 16 16
108.827408 -108.094322 -244.776321 19 18 18
130.791824 -103.847443 -235.202011 18 17 18
26.258858 -33.511463 -54.367054 27 26 26
29873569792.000000 9640184832.000000 -40885628928.000000 59 56 54
25.047768 -31.756420 -53.303974 13 11 11
11536102400.000000 7085948416.000000 -8542832128.000000 23 20 20
13.356541 -12.664014 -32.785141 57 57 57
183.723358 -21.324717 -245.000092 48 47 47
-33.559090 -125.244659 22.049959 14 12 10
-407503.250000 2027847.125000 -5932755.500000 10 9 10
224448282624.000000 171783503872.000000 -206834925568.000000 24 26 27
16.243423 45.200592 27.114662 58 56 56
25.188807 -7.193168 0.081847 16 14 14
22.217628 -4.267680 -20.855333 56 54 55
119.028526 -109.988640 -236.344467 10 10 10
-4636085.000000 -10583735.000000 7720900.000000 41 37 38
132.899033 -102.985977 -234.960876 32 31 31
108.356239 -108.808342 -246.452789 16 15 15
106.433662 -109.230461 -248.933517 19 18 20
27.098688 -31.641514 -51.390118 41 39 40
22.263208 -3.223675 -24.417557 50 50 51
25.990850 -6.468288 0.065199 20 19 20
393188.218750 -952501.437500 -1567192.000000 39 37 37
15.532258 43.376465 27.390762 18 16 16
-1055882.750000 4688597.500000 -13765594.000000 20 17 18
25.280127 -20.237967 -42.736485 18 16 16
19.970789 2.300713 -2.099851 18 17 18
682288676864.000000 550079692800.000000 -644740546560.000000 10 10 11
-411151648.000000 -712652736.000000 538488384.000000 54 51 52
110.198410 -108.703712 -236.454758 24 23 22
22.699520 -25.964689 -48.399323 45 43 43
-194780.515625 843698.437500 -2471385.500000 52 50 50
19.431755 4.122765 -0.586974 14 14 14
17.831085 50.644451 31.746353 54 54 59
137.981415 -100.123817 -233.922668 47 46 47
18.032345 49.385567 30.197767 49 47 47
136.363388 -100.864388 -233.911575 42 41 42
38205796352.000000 37815291904.000000 -34318495744.000000 40 43 43
133.845856 -102.268852 -234.704926 39 39 39
15.888365 44.226318 26.861645 51 50 50
108.360550 -108.862343 -236.503479 66 68 70
23.137419 -1.507434 -6.575134 22 19 20
-410255904.000000 -687962688.000000 516801248.000000 28 27 27
114.628372 -112.896927 -240.965683 83 83 86
115.814476 -110.320045 -239.040146 55 55 55
29.197367 -15.723126 -38.493603 27 42 90
109.078667 -109.895515 -237.807175 40 39 40
115.518951 -111.289307 -239.620193 40 39 38
22.270504 -3.283726 -24.183912 15 13 14
210464129024.000000 162916614144.000000 -192538951680.000000 8 7 8
108.353958 -108.860596 -236.514221 66 68 70
25.146927 -7.120459 0.082591 18 27 55
21.192179 3.221619 -2.867157 32 32 33
109.134705 -107.925499 -239.213654 36 35 35
22.260805 -3.244850 -24.350092 15 14 15
16.491287 -42.790424 -69.046509 31 29 28
224879232.000000 558458368.000000 -397640000.000000 41 36 35
119.915695 -107.523163 -238.384476 4 5 5
107.693672 -109.166260 -247.412445 15 14 15
109.970932 -109.109909 -237.317139 20 17 17
109.956970 -108.981651 -237.708496 36 34 33
371565920256.000000 273127981056.000000 -339665616896.000000 54 58 60
108.255356 -108.294746 -245.429489 44 46 46
-139501648.000000 -288355872.000000 210318640.000000 17 15 15
110.244759 -108.595512 -238.041138 28 26 25
108.544594 -108.177429 -245.030594 28 28 28
109.909225 -108.354950 -239.337250 16 14 14
332578652160.000000 184167645184.000000 -300982272000.000000 27 25 24
185.021637 -16.562651 -245.033844 15 14 14
12.888429 -12.822424 -33.186043 30 29 29
-157515.468750 716071.625000 -2110702.500000 29 26 27
135.270309 -101.432106 -233.762604 23 22 22
22.695190 -24.436563 -46.985378 46 47 60
7459543.000000 17119848.000000 -12410455.000000 62 60 62
19.576506 3.940598 -0.505925 24 24 24
110.589958 -108.968407 -235.752029 4 4 4
-42449068.000000 195376768.000000 -565290624.000000 84 80 78
-1228000.625000 -2968548.500000 2143087.250000 100 96 95
20.526968 3.208865 -3.108797 52 54 55
108.603027 -108.200394 -245.050903 51 52 52
26.009880 -15.809640 -41.089252 12 10 11
430850.218750 1187640.750000 -838529.875000 25 23 23
-55.654350 -240.787170 74.939568 28 24 26
184.744873 -17.936279 -245.320190 49 49 48
64971.171875 149799.656250 -108232.945312 30 31 32
86342950912.000000 -194334670848.000000 -345124143104.000000 55 54 54
120.484200 -107.546814 -238.366302 38 41 44
113.350006 -112.646217 -241.789841 21 38 87
110.758034 -109.121353 -238.494415 19 18 18
107.465759 -108.327637 -247.341095 16 14 13
23.039980 -27.547436 -50.072803 14 12 12
24.803028 -7.063409 0.090442 26 24 23
106.317245 -108.498657 -247.082428 57 57 59
26.100697 -6.531160 0.064060 25 22 23
115.367104 -113.114143 -240.486481 15 13 13
32652081152.000000 9304674304.000000 -41506275328.000000 47 44 43
388680384512.000000 283799748608.000000 -345297354752.000000 24 24 25
22.258692 -3.245087 -24.342424 23 21 22
36454379520.000000 51849871360.000000 -41080778752.000000 10 10 11
-92473.320312 373145.375000 -1086600.250000 51 46 48
110.388237 -108.601555 -237.913452 31 30 30
20.193720 2.447513 -2.267489 16 16 16
110.154297 -108.459976 -238.854095 41 41 40
26.753527 -30.733622 -50.940483 20 17 18
25.318804 -17.654089 -42.266499 15 12 13
135.490662 -101.638191 -234.033127 18 17 17
114.961365 -113.268990 -240.919357 19 34 86
108.381905 -108.342087 -245.381607 45 46 46
115.800377 -110.268677 -239.021713 23 21 22
25.955751 -33.068035 -54.088089 34 32 33
108.420677 -108.541977 -236.367874 48 49 50
16.167700 45.029163 27.113823 22 20 19
-782795136.000000 -1011266880.000000 814901568.000000 33 31 31
29.912136 -18.020792 -39.244324 48 46 45
2499.413818 -865.956970 1586.884644 60 58 59
25.271004 -7.305044 0.137114 46 51 67
167709360.000000 346990816.000000 -253112144.000000 37 35 35
152.836533 -87.261124 -237.800842 20 17 16
24.971773 -31.644007 -53.226154 24 23 23
-525522.000000 2317279.250000 -6750372.500000 60 58 59
107.872108 -109.086327 -247.195267 53 53 55
110.483414 -108.872040 -236.159195 37 38 38
109.662964 -108.479477 -239.541031 23 21 22
109.529457 -109.311127 -237.844986 14 13 13
16.184517 44.972515 27.058716 33 32 32
24.944315 -31.578249 -53.254528 10 8 9
-742935168.000000 -961602432.000000 774380864.000000 30 28 28
107.789848 -109.148788 -247.348846 32 31 32
143.534607 -95.343460 -234.753967 32 32 32
125029040.000000 257840096.000000 -187894848.000000 23 22 22
114.386848 -112.515396 -240.967804 37 36 36
129.307144 -104.342102 -235.121384 27 27 27
17.770508 47.707314 27.881464 59 57 57
24.650894 -31.024185 -53.029873 14 12 12
133.716965 -102.118393 -233.752457 22 21 22
115.263908 -112.841820 -240.441086 54 51 51
135.355194 -101.642960 -233.877350 12 11 10
-2712174592.000000 -2171449856.000000 2121083264.000000 23 23 23
108.510880 -108.739250 -246.107224 12 12 11
26.125923 -33.472515 -54.148319 38 36 36
10436.020508 -3938.166504 7855.710938 51 52 53
2845960.000000 6598940.000000 -4762696.500000 24 24 25
18.493076 4.170751 -0.572567 39 40 41
109.114342 -109.917366 -237.864609 34 35 36
20.383646 0.428806 -3.005349 40 39 38
114.236755 -111.961647 -240.943039 24 21 22
115.524765 -115.533119 -241.204010 24 21 21
17.671009 48.408169 28.768370 24 21 20
227337568.000000 451661792.000000 -335177824.000000 27 23 22
90972020736.000000 69201920000.000000 -75982471168.000000 41 43 43
16.904148 47.363541 28.218105 17 14 13
109.385391 -108.658997 -239.743790 59 58 59
31806.556641 -90426.343750 -150654.265625 147 144 146
24.968197 -31.634531 -53.238201 16 14 14
108.875954 -107.527016 -244.707916 30 29 29
108.372101 -108.341873 -245.396973 16 16 16
110.071999 -108.717285 -238.059647 16 14 14
23.982834 -29.924459 -51.987560 15 14 14
875747278848.000000 713560227840.000000 -836342382592.000000 10 11 11
108.259666 -108.839760 -246.455109 40 41 42
108.350990 -108.341919 -245.401398 30 31 32
216387485696.000000 167437189120.000000 -198494322688.000000 15 17 18
21.221180 -23.468962 -46.493786 60 59 59
114.600922 -112.303535 -240.723541 86 85 86
-15860560.000000 59059864.000000 -170180512.000000 74 69 68
115.569832 -112.328140 -239.964157 41 38 38
23.042583 -22.746504 -45.288639 20 27 51
24.601219 -7.468668 -27.757685 42 52 84
69381570560.000000 39115857920.000000 -55018790912.000000 24 22 22
-91998.015625 534037.375000 -1586310.500000 14 14 14
120883.281250 -46581.964844 94232.734375 16 14 15
108.770676 -108.063805 -244.755569 26 26 26
-2024676.750000 -1427526.875000 -1516833.375000 39 34 33
6062494208.000000 4290235136.000000 -4620743168.000000 12 9 8
118.000755 -107.707047 -239.187149 13 14 14
26.127739 -6.435653 0.063354 44 42 43
-1376392.375000 -3511551.250000 2481191.250000 22 19 20
147334.203125 -56739.804688 114503.390625 22 20 21
17.741251 45.107449 25.033634 53 51 50
5079749.500000 12927177.000000 -9289061.000000 94 90 89
108.497215 -108.524361 -236.241776 53 55 56
16.112431 44.855125 26.925388 17 15 15
108.517464 -108.707237 -246.091873 10 9 9
-755.690918 5223.155762 -16053.824219 14 13 13
20.952200 0.993392 3.163105 41 40 39
23.634304 -20.965612 -43.742355 40 39 37
135.591644 -101.345741 -233.770370 54 54 55
115.812363 -110.271530 -239.023911 44 42 42
109.740349 -108.450813 -239.405899 36 36 35
25.101124 -9.423362 -27.747049 57 56 56
116.342804 -115.595711 -241.031387 42 41 42
114.724274 -110.469498 -239.946350 43 43 43
24.921528 -7.028486 0.088554 16 14 14
184.873001 -14.310046 -243.899551 44 46 48
109.118965 -108.351776 -245.225235 54 54 55
22.943647 -27.526224 -49.385433 21 18 19
108.873566 -108.078773 -244.764923 23 22 22
766849122304.000000 576562397184.000000 -708082597888.000000 54 57 59
29.302246 -13.700872 -37.290493 85 84 83
108.540878 -108.909904 -235.540833 23 22 24
145.398254 -93.447517 -235.350815 24 24 24
109.647354 -108.696175 -239.049377 57 56 57
112140.296875 -43203.960938 87406.250000 43 45 45
25.706684 -6.731701 0.070099 57 57 57
-17849532.000000 -42869288.000000 31132336.000000 81 77 79
25.828905 -6.594429 0.068188 13 12 12
107.684761 -38.957436 -284.406158 15 14 14
107.854500 -109.107956 -247.260544 53 54 56
-66.694389 229.597900 282.852814 9 9 11
109.730965 -108.441277 -239.420853 53 53 53
108.589951 -108.665443 -245.982498 11 10 10
108.985703 -108.709145 -236.788300 51 50 50
16.341139 45.608299 27.164057 41 40 39
